ply
format ascii 1.0
element vertex 688
property float x
property float y
property float z
property uchar red
property uchar green
property uchar blue
end_header
-0.10798880529773135 -0.0532364362564958 0.7002901811275133 187 209 230
-0.10552630848879574 -0.039132482669728824 0.7006557013964493 219 243 255
-0.04117368278685576 0.12222040090747349 0.573934394931791 50 26 22
-0.04157066673244265 0.12161693903340097 0.5744408428595802 61 36 32
-0.03438475632934537 0.1382875072823843 0.554806399820572 32 7 0
-0.04594151329242074 0.04412892963153048 0.5950046752853708 32 11 10
-0.0943922329459197 -0.031040170423287963 0.6855946476408898 210 234 255
-0.05680840429786716 0.04063771071733641 0.6196263591736014 110 90 99
-0.03303535327022033 0.13884509061967032 0.5518670153339699 65 36 30
-0.04903506147909667 0.04380255232606143 0.6020503855812241 24 9 14
-0.003983350770057029 0.0456555580928412 0.5091125010712003 99 70 64
-0.03651015153362377 0.12919464082148385 0.5618421053159929 47 19 15
-0.03041802363552993 0.16148008331465666 0.5379304009177351 85 75 74
-0.04770294129108651 0.04939009984530315 0.5987061717658018 39 21 21
-0.0363343726693187 0.1225984965525378 0.5637090969693994 44 19 12
-0.0014917726871164069 0.040702874607778584 0.5047950243362717 86 65 60
-0.03928870459813324 0.03553337727838467 0.5801653181003634 67 47 38
-0.041009769499788996 0.1170138754933302 0.5747402261427239 40 19 16
-0.05013758802440108 0.04841338011229349 0.6046713487867058 57 37 38
-0.0427084050815504 0.036980204724287084 0.5879706468778988 32 11 6
-0.04913594093797067 0.05051201178268642 0.6021710762048248 31 16 21
-0.03374328548907208 0.04239548255484094 0.5683706351203941 31 8 2
-0.04951631040532668 0.046121559001313234 0.6026861189846127 27 10 18
-0.05936146424486795 0.030295812828526687 0.6261602190790062 136 134 145
-0.05805510653869705 0.035698925314080365 0.6232746849190925 134 137 146
-0.05909040690888478 0.03939164033011912 0.6249238930329692 114 110 125
-0.03180029543136307 0.041854922656645394 0.5634441439534187 41 18 12
-0.055882398820111735 0.04855562933854603 0.61720684978153 153 140 147
-0.04783081938973428 0.09206354308460313 0.5946708658884944 70 47 41
-0.03675873586608558 0.14213833190642955 0.5525815620047921 63 44 38
-0.038224037952938356 0.12052076818789521 0.5678812164815287 46 26 19
-0.044453514737324666 0.03204818624952782 0.5919532510386107 45 25 24
-0.14773978291511486 0.0762318371153796 0.7000320140061669 58 39 41
-0.028254108577531266 0.1688584927811208 0.5311083890325898 62 54 51
-0.060664862989556985 0.018749065986700536 0.6280396345770999 122 116 126
-0.003114666153682275 0.04242580092253003 0.5077543751939425 72 42 40
-0.040864798015726025 0.12295163640990896 0.5730849773540745 25 1 0
-0.05107513156951541 0.03365427478386001 0.6064921709790615 66 42 40
-0.05984464175418661 0.0332040935906343 0.6276435706997006 119 107 121
-0.054124764939478154 0.0311608324034731 0.6132755480782904 141 143 155
-0.04301875733830618 0.034262605903281534 0.5885333013330946 34 13 10
-0.037777265985063216 0.13335421458609092 0.563795387213851 45 20 15
-0.037584973789621806 0.12347682703674955 0.5660263217389074 30 7 0
-0.0470659982307653 0.045093512648771705 0.5979697835886827 44 26 24
-0.037374918817101054 0.13701441263303824 0.5615321484699374 68 39 35
-0.03241900836921585 0.13205976664980082 0.5523166681726951 115 112 119
-0.060186236647884424 0.02881625827828902 0.6273195423734053 111 108 119
-0.029076552509645335 0.15684187762735982 0.537539778344618 68 53 56
-0.04378921488867899 0.03789651450888198 0.5901819770398411 49 28 25
-0.25824483583419516 0.4228776424133682 0.5035748507443187 82 76 76
-0.05611387447500589 0.04316961029800746 0.6178665797296572 89 66 74
-0.05675803788661537 0.027587840067012974 0.619815186217405 96 90 92
-0.04752745363676908 0.04290081413491666 0.5986771831258991 55 37 35
-0.05462139684480062 0.052244235628173964 0.6142960418542571 132 134 146
-0.06244639980011803 0.029347923745600385 0.6325875533147455 116 118 133
-0.5077912615395577 -0.4923636600553839 0.9642767185877794 121 103 81
-0.3751414380355848 0.22291221201705816 0.772843615228515 238 240 237
-0.046648046282635615 0.03542118747465449 0.59645581919847 33 9 9
-0.055443505052986036 0.04148355743350779 0.6166737817573943 133 112 121
-0.031672547318634524 0.03948219622468843 0.5632506189670147 40 16 12
-0.0329961917728663 0.16079332250985343 0.5442088901512916 70 54 55
0.004525392921575821 0.04197852454388292 0.49392781934157876 35 20 17
-0.1916130285785622 0.18573396057779987 0.4955855917442579 78 59 53
-0.5689419593004409 -0.020229599143484024 0.8860312737792173 228 231 222
-0.014115057025636996 0.045278580967086576 0.5287616847046891 64 46 44
-0.03929446307167052 0.12307857133766914 0.5693805292413687 31 10 5
-0.05773151475606622 0.038269316326141285 0.6224989762132551 157 155 166
-0.03685468524596239 0.12830261939908794 0.5630887594639821 38 10 6
-0.06392927733844772 0.022421800257488418 0.6353397025821274 101 100 116
-0.06200570445233477 0.016546846252795466 0.6308228433703749 105 97 108
-0.04698654107470729 0.03494650498512903 0.5970259542808573 38 17 16
-0.03842968248857118 0.04683877078348167 0.57790249162488 39 19 12
-0.04989398980061256 0.028229680904249415 0.6043490109293814 51 25 28
0.0326128417495305 0.00836893670327788 0.44025769932127407 36 17 13
-0.08451247082552275 -0.13972661069403797 0.6370024948315418 66 32 31
-0.040224601326793646 0.03634403715932718 0.5822182692147887 90 68 54
-0.056150064264219576 0.021645044090717932 0.618250880579732 144 158 171
-0.054805927300052105 0.03300248857977589 0.6156530709669893 140 139 147
-0.007115730190198821 0.041725536511230545 0.5152433517414025 89 59 57
0.039670988410529025 -0.5528498772854409 0.4654165836697438 51 32 26
-0.05448703488580603 0.04835105182524134 0.6143803961962102 139 141 153
-0.05773151475606622 0.038269316326141285 0.6224989762132551 157 155 166
-0.05975770127889547 0.03322980344518897 0.6263360794788355 102 96 108
-0.03547090256454326 0.12510671297918144 0.5608605385700409 45 18 11
-0.21675536848907373 0.36138174537896156 0.5795766245242131 117 107 115
-0.05165545546903018 0.03138863607109381 0.6084008505024403 119 102 110
0.039670988410529025 -0.5528498772854409 0.4654165836697438 51 32 26
-0.0568124921045372 0.1029744375876739 0.4709657323742097 116 104 106
-0.003983350770057029 0.0456555580928412 0.5091125010712003 99 70 64
-0.014185007575109248 0.048808336845515846 0.5289124950780146 59 45 42
0.05348865151919057 -0.03397179092713047 0.3893345195542423 51 34 26
-0.048517097600765016 0.03153235652101992 0.6005083760335358 20 2 0
-0.05314920186292065 -0.053674335410191586 0.6048672967831593 163 163 175
-0.3762395591502817 0.47266222009594494 0.554298351974332 56 26 16
-0.039820485114260805 0.1266350715853987 0.5694173008681909 36 16 9
-0.427996866564477 0.036989412777232646 0.7378214144257897 197 207 209
-0.03369867257945754 0.12729555262423173 0.5570194911375889 64 37 28
-0.014115057025636996 0.045278580967086576 0.5287616847046891 64 46 44
-0.03805178622753742 0.11889400773057855 0.5681786042478625 46 26 19
-0.21587105308272442 0.03292470567888631 0.7608673016460745 79 50 34
-0.07860556053651557 0.09910743212483096 0.5639320609722748 88 58 50
-0.0407225084531864 0.1198710834789105 0.573050440224809 28 7 4
0.004394854739527779 0.03587811200080497 0.494210314240698 34 19 14
-0.3202145444900659 0.383661426190576 0.6308885486364149 88 60 46
-0.005037552707624234 -0.08505283636394789 0.546301570254027 115 104 108
-0.12295876175402243 0.06196709483642312 0.7296330681589798 131 125 127
-0.037947402369034294 0.13017858951459826 0.5644857409424736 39 11 8
-0.0561045887664308 0.03668889636879331 0.6182835678269328 115 100 103
-0.017486162196640086 -0.03128325058177114 0.5518373330528326 94 61 56
0.00607330302136402 -0.1479847328880557 0.5303688145798852 158 157 165
-0.41385918829561674 0.49201404522743647 0.5398053906188732 119 97 83
-0.10519656563845656 0.03389265693996276 0.5872328838599865 65 43 32
-0.04835977351787649 0.071875633207838 0.5583218604021531 102 77 72
-0.23164864393220014 0.27409386791843127 0.49393352332579216 152 140 144
-0.007804936805105125 0.05686957978251441 0.5423247459102072 55 40 33
-0.001442711836688606 0.03630619182867647 0.5052950806146601 89 72 65
-0.03776182824345557 0.12891885340041118 0.5645078470525602 39 9 7
-0.1226320693778378 0.0726219158962286 0.7310940449975455 72 55 45
-0.22258670644806444 0.25334949322867967 0.5155418839990982 68 47 42
-0.03774086700509609 0.11584668807794075 0.5677320078915927 62 43 36
-0.007403591233400772 -0.47209320588220294 0.5823260617656083 49 26 18
-0.004896827218409263 -0.06497351140212594 0.5436173297509636 98 69 63
-0.2593235522734155 0.3786764046567892 0.5488341320969254 81 63 49
-0.03616747278184951 0.13851395048435952 0.5581608843599378 39 14 7
-0.05621088072033282 0.12594974864099845 0.5480662015174018 70 52 50
0.004273094699475291 0.036320039373295546 0.49508923050156556 34 19 14
-0.014963983741053387 -0.47894944342002843 0.5861074129540124 30 10 11
-0.04641581525993515 0.04065186115785672 0.5963623216519929 75 55 54
-0.09907452939405352 -0.1688063846301838 0.6509173948374603 121 99 101
-0.03568591317647392 0.13198259263102613 0.5589881885874414 60 32 28
-0.04759461739955235 -0.09609867596255701 0.5213696261923547 77 53 43
-0.34272573737439116 0.431977286523024 0.5001178963755819 108 108 118
-0.09398858736171266 -0.02906009320246852 0.6852530398036523 200 224 248
0.07970118420622126 -0.35440661743608315 0.43074477815599865 24 3 0
-0.040884778405923326 -0.01934190433162668 0.5515730764157041 76 39 30
-0.05998165834633409 0.03586251995363126 0.6263692795410595 139 128 144
-0.09288606858942569 0.15269605498841438 0.4863599378222723 44 22 11
-0.4105587476027581 0.6084337369751148 0.5232412390537478 92 62 54
-0.43420141926227585 0.6470996678062536 0.4971077708567995 119 111 124
-0.04752850927307006 0.04443428820045597 0.5989113174054083 44 28 28
-0.38015905818546475 0.4970532280166692 0.5407512902463903 59 36 30
0.022515731675437186 0.018029288173557055 0.45662800501463263 68 44 42
-0.1040815415768093 0.09856075861735625 0.5017856995230171 48 24 20
-0.07601501331810388 0.1009241040744577 0.6499542083270731 29 9 10
-0.04036253698528112 -0.29021012675158364 0.5814801570997846 123 107 117
-0.03808765982970281 0.12323635905473866 0.5667216586613817 39 15 11
-0.06627703498921361 0.03428002531522809 0.6006968720543747 33 14 8
-0.062185072716146955 0.031025334321662285 0.632316465221939 118 120 133
-0.03448296419117483 0.040260463504789415 0.568797917340831 38 18 11
-0.06657621452290118 0.04279085471735638 0.5367589921830581 68 48 37
-0.19977599766470924 0.2561149469613474 0.4983892921043629 60 46 35
-0.03424682176302009 -0.015691652566756104 0.5815802561357455 70 46 36
-0.375162685809897 0.5552712178887887 0.5208848324811557 21 8 0
0.006026933082054966 0.053011024404356295 0.5078001433552811 64 47 40
-0.03964263742259802 0.04718926774997179 0.5806571148722611 40 19 16
-0.0526787520107493 0.08686482721772922 0.6272070873761806 173 185 201
-0.0077935403449541155 -0.05442360277331586 0.5014209350390201 80 60 53
-0.07780474171806855 -0.29258618907101447 0.5216949134401758 74 54 43
-0.2673065295029974 0.40621067614325246 0.4714283508624041 148 146 157
-0.3853319742490253 0.5190781142446713 0.5374546420157678 76 49 38
-0.3686370181912685 0.5207925419629795 0.5491244705290119 40 21 14
-0.03448811713578183 0.14595147285796162 0.5522230288947357 53 28 21
-0.032473878736433245 0.1321573852734244 0.552690401940353 48 24 14
-0.06819817395626049 -0.27909297481384127 0.6022014944326488 36 16 17
-0.06632035028615288 0.015180165119057799 0.6394841298521672 133 136 151
-0.11479741431948595 0.24288913069650422 0.5903632032445661 55 51 65
-0.19940036036549316 0.13745094538154154 0.6268118571997007 64 53 47
-0.30845501141814824 0.3900584177208315 0.5678023159146834 61 30 25
-0.05668106973710565 -0.17811929495760254 0.4651112189246522 77 63 60
-0.01006937945789582 0.04746515130151844 0.5210407878445451 69 50 46
-0.38570626833829025 0.5290604750467878 0.5316763782081048 69 39 31
-0.014907094595325633 0.03558057885858813 0.5099060660870757 80 62 58
-0.21472890383690785 0.22976184446372805 0.5034303437226352 146 137 142
-0.028617354101204903 -0.018455114365350304 0.4868086700804036 58 43 38
-0.0645408541204506 -0.1639972577805477 0.639874028340169 131 103 99
-0.320579902872919 0.4366941039626656 0.5649286875982263 44 26 24
-0.054106993577669085 -0.00022472818876080348 0.62537796722799 158 168 178
-0.04547585776946183 0.11069932300223223 0.5865722771509194 39 18 13
0.012825913764955664 0.040148486561058974 0.47363985619340054 84 63 58
-0.04179197109302808 0.11109151901610204 0.5776471539012996 43 24 20
-0.07232170094649945 -0.24820325757912415 0.6355114548152978 111 82 74
-9.929106239682846e-05 0.04276060149774517 0.501984902130906 108 85 79
-0.018049438906523007 -0.2501894196308297 0.45098359000018856 77 62 57
0.012251807246206307 -0.16801221844289416 0.47215154461991826 87 69 67
-0.22831339044372856 0.2776070780092918 0.6007053948990011 47 28 24
-0.15210015834786914 -0.25043791066466775 0.7925867199553692 106 88 76
0.014625170225023538 -0.2784755885543305 0.5307526912397658 99 65 56
-0.06070463010814898 0.18280836385447896 0.7649676435822713 127 126 121
-0.2559826053017935 0.30371655598619907 0.5670276270485922 102 100 101
-0.24297211077239422 0.15138016080935235 0.74588072607871 69 50 46
-0.3125042897824471 0.47910696084469206 0.5309469762781445 107 98 93
-0.00435928813521549 -0.3923461162836933 0.5336837030348491 26 7 3
-0.32146966301283153 0.438141721755986 0.5185425749797797 174 165 150
0.012446429061376718 0.010244676254673516 0.503440422628434 75 56 50
0.002258705152978265 0.01965035501377074 0.5312860111021588 75 45 43
-0.11939702721476464 0.1412944569151857 0.5485695998188014 89 64 59
-0.3007365199303237 0.33610871011826543 0.4906599571349627 146 126 115
-0.006223723346625624 0.0014181559574721215 0.5406236456608196 63 46 36
-0.44208496044700624 0.43842526324409153 0.5282055862942262 125 109 94
-0.013984786482174289 0.050427470855608655 0.5283254736817891 44 33 31
-0.3576935060545118 0.4648900487233814 0.5738828001875702 110 82 71
-0.41042903016933174 0.39694428220351163 0.5580120571981423 136 125 121
-0.11483109058989262 -0.22060986089235568 0.42290460159649335 84 59 55
-0.2002492307232461 0.15111730942813875 0.59862792065459 60 40 39
0.011233418795099285 -0.11028321435706995 0.506679546420169 73 42 40
-0.3395966933380916 0.5097588070642147 0.5286967646787977 15 10 7
-0.05320619016918319 0.05387070343361578 0.6212096004781223 160 176 189
-0.22629717944350183 0.21729990201088895 0.4988186769236201 111 93 89
-0.3774237546641902 0.5158342947337212 0.5415857240551276 43 18 11
0.05411334977201716 -0.37907563403088645 0.43989214900510765 112 91 86
-0.05587916306838406 -0.07488314166953723 0.5560582117917571 30 16 13
-0.08811690766226339 -0.12192314657764397 0.6344962291947606 44 20 20
-0.0692205481732754 -0.12005774830266608 0.46634315270861076 99 81 77
-0.1668476012525998 0.00920535323875363 0.757323429838735 79 58 41
-0.08035471313490822 0.00265135889083122 0.5210919126212442 36 15 14
-0.21409599974048948 0.36330407921742863 0.5384104854212729 61 48 40
-0.29758453055991846 0.4636798170354102 0.5046094266585621 164 157 141
-0.3222554257093528 0.3942831654727192 0.5137399659012395 70 68 69
-0.3760844900233199 0.4824725832910222 0.5500560601801798 68 41 30
-0.27605786433340135 0.32698069364999577 0.5670611273641397 106 91 72
-0.05250772027168023 0.12080098938664588 0.45717066333633455 34 16 12
-0.3927529833175641 0.5676157639623906 0.5374587065902923 32 14 10
-0.042932288891968345 0.04966517113431414 0.5858129530296167 49 28 23
-0.012593288727395768 -0.09177572637133606 0.5455117114459699 90 54 40
-0.04688066717973386 -0.32993190088700913 0.6306927009375787 94 64 62
0.014625170225023538 -0.2784755885543305 0.5307526912397658 99 65 56
-0.12628218941381597 -0.08023946892002468 0.7175084471429519 161 159 170
-0.1553818384033404 0.11195295157495692 0.5979834364132819 43 23 16
-0.056994913375575926 -0.4027075576508643 0.6304918655865086 137 109 97
41.06548718520368 1077.3254007471473 -129.52317986699666 59 46 30
-0.027860125055494553 -0.10608069321078306 0.5745140247688585 72 45 36
-0.2774358170049141 0.14349537162232331 0.5967479402899747 112 107 114
-0.042596592611827445 0.030318403115512444 0.5631887114218893 65 41 37
0.00972175562941052 -0.2010666302515035 0.46465349635668995 59 26 19
-0.06878466192623771 -0.19697791846279372 0.5638991614185475 92 60 49
-0.11991178856911806 0.08884221606774442 0.5153182950053219 59 39 38
0.02348397624044981 -0.1403784850887219 0.4739469443616532 32 11 6
-0.023834259233871686 -0.06697274151476279 0.5402427532899281 29 11 11
-0.025078545510199595 0.14509648706293424 0.5752393583045804 78 69 70
-0.022278474549120336 0.0735526938011183 0.5316213676679515 51 36 33
-0.3971082864637806 0.5152354129374882 0.5426491541218031 144 126 114
-0.17607951685176154 0.044131566033332924 0.5708282705534091 82 50 39
-0.36964807054438464 0.515557981207074 0.5467506091318185 76 36 28
0.05749338685581232 -0.31191069092100143 0.43230725528517977 100 81 75
0.07970118420622126 -0.35440661743608315 0.43074477815599865 24 3 0
-0.08968497968472455 0.18387770995857242 0.5593112878684349 188 197 206
-0.12072820009348119 0.16788161185876416 0.5248813600239725 38 20 18
-0.16293558880724562 0.04250563213576793 0.5328028696510877 127 102 97
-0.20393698060348892 0.1924859439882735 0.53250581286935 49 31 31
-0.00012845081181686114 -0.4248378794696337 0.5554755661339942 109 75 63
-0.012839709145419952 0.024352681426245998 0.41262654532422344 69 50 43
-0.016925026323011415 -0.2099990547373163 0.5685660989685088 76 48 37
-0.27061520715254506 0.2980430735632855 0.6094831343293822 95 71 59
-0.052677175255907496 -0.019714725266236157 0.6232858587322129 151 157 173
-0.0511808564118486 0.10985401426626018 0.5888849707492704 39 19 20
-0.011480378425533167 0.044536243671806086 0.4845123649056181 77 47 39
-0.38157895034876477 0.4851053114334583 0.5529670346710793 54 26 22
-0.33082066222420964 0.34683601915492357 0.6353491333823956 104 86 66
-0.034977465187147234 -0.44415481426747533 0.6237978042133341 136 126 127
-0.37416404579492574 0.5012400618906673 0.5519580219666524 75 47 36
-0.35787830248073327 0.4320489941012998 0.5053011027713026 149 134 115
-0.24121219802379038 0.3622765665000012 0.5422677402436493 77 58 52
0.04272932336022285 -0.2730792472581563 0.46571002932601097 47 29 27
-0.1625193760380803 0.019051841226275037 0.7694735423105827 64 46 36
-0.4131246517848881 0.6145193098756839 0.5170094164771772 47 31 18
-0.2344464561624561 0.2159813732161697 0.6616135325981166 156 149 130
-0.17678600856481366 0.2881732203332241 0.590436597608532 179 194 201
-0.14551309027966036 0.24690375415105795 0.5230382263655328 164 181 201
-0.18653422600295272 0.1754389852402806 0.4887737527166727 47 29 29
-0.15386373338047807 0.01742131909960217 0.5332058417497966 155 132 124
-0.3394289965239881 0.29884269799473695 0.52448685134359 54 34 27
-0.00954833303753426 0.005951148538938876 0.4797851933464436 71 41 30
-0.14896790802365972 0.0719515008991027 0.5453593390918022 92 58 56
-0.3072035107215302 0.2033016859776603 0.6885053284485319 75 54 35
-0.29315923659817067 0.24369283211190262 0.6192660587044103 74 55 49
-0.08660169437910706 -0.032305194726262164 0.6538522533665699 200 224 248
-0.17314785103271207 -0.10335250401046973 0.5958664912954474 56 30 17
-0.5370537229569546 5.660587159898364 -0.15457920580288137 190 194 193
-0.24377097075422485 0.16219861257715137 0.7379086090991781 66 44 33
-0.17669323767035153 0.3513506068873279 0.614198588491174 93 76 58
-0.062235462511300035 0.017075762930072947 0.49783387351450026 56 38 34
-0.23914862194381775 0.332008324323966 0.556352317265561 208 226 238
-0.15765622867992687 0.17946709912371953 0.5579038116590914 60 37 31
-0.033052822291376606 0.14132850014235007 0.5521318176865097 47 19 15
-0.2655573573309258 0.2273399788673401 0.7527645710047319 140 128 112
-0.26174373158905745 0.35545777414982305 0.570573725974289 151 138 121
-0.08761325851524986 -0.07639689119997416 0.5180727447940587 76 57 53
-0.35973839899337867 0.4854379147302913 0.5668128568351077 158 148 149
-0.025011134540491364 0.06983826836346989 0.5362836719785349 84 61 53
-0.32557710676026236 0.45565545317142625 0.5023283625527555 141 132 115
-0.20658705323592838 0.38374710646288196 0.5733118397316764 89 72 62
-0.08914220993383816 -0.08158533051844531 0.6360137739302392 84 60 56
-0.007483340827672061 -0.033150727883200684 0.5492033694091913 50 36 27
0.002321258070136432 -0.1980054096964716 0.4834797731998672 93 60 45
-0.0023688459513948818 -0.2822060184768506 0.4286569692061511 82 68 67
-0.10114411977094948 0.1021652884758751 0.5667130960890043 93 61 46
-0.14159587986338643 -0.043782057187056696 0.5621726561127693 68 40 29
-0.060424135305834493 -0.12745155304285033 0.6109953104174319 48 24 20
-0.30648757660102866 0.3156856425530277 0.582102029542121 131 115 92
-0.044344235466623055 0.02822791675459049 0.5165385647533417 61 40 37
-0.1841401604740592 0.19290644085761857 0.4537581901773665 69 45 35
-0.26044578852222544 0.3170239510952252 0.5638922162618781 94 86 84
-0.0619441851867743 0.020635263109960184 0.6108721252245526 106 106 116
-0.05418095391010725 0.10153629330982045 0.5936305806338485 61 44 36
-0.06659235842050179 -0.11293196457935631 0.6030470561562663 40 21 17
-0.06430863782712204 0.09396567670526196 0.5825560625090639 71 47 45
-0.24843998433642894 0.21107146344056343 0.43238581433691914 100 83 75
-0.05375693206756141 0.08698377688228087 0.612228401626477 45 26 20
-0.08859167880996313 0.0950539225392442 0.5473686532674662 53 28 21
-0.19570050176140552 -0.10114391708723304 0.7565282433801609 128 119 112
-0.2475907606925107 0.30784185075383796 0.40691455079396127 67 49 39
-0.05972134692385325 0.014666772012050295 0.7567345954184854 175 189 200
-0.14357977552492943 0.09350620889153502 0.5075829674770188 77 51 36
-0.1377270263196813 0.0759015090010966 0.5399695521935765 53 28 23
-0.11320009806818046 0.0992408887226921 0.5171712254394006 115 88 71
-0.06750389628516251 0.09472736514726937 0.5763415891601668 53 33 24
-0.05444209084010507 0.08709004060933086 0.6105884650487099 40 24 24
-0.08859167880996313 0.0950539225392442 0.5473686532674662 53 28 21
-0.13424881770973926 0.08046383679836831 0.5346426606053165 40 19 14
-0.11290288554580986 0.09545627086457843 0.5240889263182471 108 74 62
-0.12655132172231176 0.10105121377909061 0.5050614270183006 164 159 156
-0.1326109789693836 0.09755568286177306 0.5069015423063361 77 47 36
-0.13708053144511273 0.09975123783676423 0.501227354712817 51 26 19
-0.06430863782712204 0.09396567670526196 0.5825560625090639 71 47 45
-0.14167127043417757 0.09515011630511218 0.5061861015594912 106 80 65
-0.1397016905465289 0.08378417003473851 0.5252644493025062 27 6 5
-0.13277428232368593 0.09702885119897306 0.5076555321992974 82 45 36
-0.140051861684772 0.08287376849661861 0.5265993991780475 89 65 61
-0.12095460080012659 0.09807323670822853 0.5135062766166947 83 47 33
-0.13016567233606685 0.06776658967361561 0.5613520545236251 112 88 86
-0.09236722899450628 0.09436464740628192 0.5450004689597747 78 49 43
-0.050825895597967796 0.08614805355802167 0.6206368447867395 150 157 167
-0.11011085088862844 0.09658325723961464 0.5244505471060044 146 119 112
-0.1287644617133339 0.0974103623344395 0.5091615997157938 74 42 29
-0.12901005164253512 0.061843949232664314 0.5741507356663569 105 99 101
-0.04977213135005619 0.08613576682816511 0.6225051879216118 161 158 169
-0.1952219640123028 -0.10083989612197602 0.7565111550973539 150 141 136
-0.1447508189697637 0.09298816521342623 0.5077873023454803 70 34 22
-0.12149436132252195 0.09984218656989696 0.5102759522596872 75 41 31
-0.10128535455115713 0.09643867961381057 0.5323080088774849 80 58 45
-0.12864526185484007 0.10044533719622456 0.5047783703938897 55 28 17
-0.11268428690620046 0.0980925779589279 0.5196782156326947 88 59 45
-0.12240150650334108 0.09657779862303681 0.5150048726609471 82 44 31
-0.1447508189697637 0.09298816521342623 0.5077873023454803 70 34 22
-0.1375151925198529 0.08635434468488272 0.5223636249977164 145 131 130
-0.1380719164173283 0.10117987827185973 0.4987041200044894 70 43 34
-0.050825895597967796 0.08614805355802167 0.6206368447867395 150 157 167
-0.1319641266527065 0.06883342757915456 0.557685854023243 69 40 36
-0.13236302453731721 0.0752092390297445 0.545570142036621 59 35 31
-0.10448644894758435 0.09464217096050397 0.5328164723516404 77 50 39
-0.12941780315779694 0.0614311723983284 0.5745293577322812 147 138 141
-0.14079136803896963 0.09402040308755966 0.5083748197669341 67 31 19
-0.09927769908249874 0.09626858525233813 0.5346138442602497 83 60 52
-0.11906021863902697 0.10348393592583256 0.5061796587116776 46 19 8
-0.12942507266217576 0.05781347823885971 0.5818634976878604 93 68 64
-0.1401247976592633 0.09216542659093069 0.5117721236224104 106 77 59
-0.13637929847423547 0.07380563514458696 0.5447596927381638 37 19 17
-0.0566959605624928 0.08626443102568054 0.6096844710277194 33 14 16
-0.14749944989814023 0.08439988219046601 0.5178701199199646 126 92 93
-0.11335812123489014 0.09964110117293185 0.5163814737181548 115 86 70
-0.13196515407814344 0.08178443417080702 0.5340630353901603 35 14 9
-0.12834917022061829 0.05418322431111683 0.5906023243871589 119 95 91
-0.13254244681298685 0.07675430071540425 0.5425439346721381 102 82 75
-0.09020543111318963 0.09543363040008568 0.5450417206529626 56 33 27
-0.12514819161085308 0.10245783396768422 0.503847075755677 70 42 31
-0.12076857330478005 0.0988294224820707 0.512323355942915 89 55 43
-0.1408567476167273 0.09241308232584053 0.510936840152262 64 30 18
-0.15907422384625955 -0.10640095399399278 0.8479788464589868 109 89 64
-0.15835824323812958 0.09323194946973141 0.49928382681962946 108 76 63
-0.14111202402015882 0.08623936999037209 0.5204806797498517 146 125 122
-0.11611999640802698 0.09855439703736797 0.5161615614274007 86 52 40
-0.13697702606087042 0.09566602683711305 0.5078400225454174 80 40 28
-0.1341071786012039 0.08185802559839116 0.5325823585797164 50 31 25
-0.048699504485051566 0.08633461479839674 0.6237454321806633 111 105 119
-0.12072541242412949 0.1032062097389476 0.5053715292075616 41 12 4
-0.14240097864955692 0.0951795708437372 0.5057704314953305 86 63 49
-0.057190797240715484 0.08738843884822824 0.6051361729857908 42 22 21
-0.06647300768286 0.09401875188541872 0.5794742476713941 61 38 30
-0.1094149009832878 0.09596935671469706 0.5261083697233099 137 125 135
-0.12823518416212382 0.057004264275026396 0.5847445026453976 106 87 83
-0.13520474586676587 0.07486964314547412 0.5436236832136683 93 69 65
-0.13104195369676988 0.06721199484229819 0.5617266995304456 129 109 108
-0.1375151925198529 0.08635434468488272 0.5223636249977164 145 131 130
-0.13813677185338544 0.07645538458080214 0.5387890345166954 42 17 13
-0.12930420464548636 0.057096642951891874 0.5834583231251562 120 99 94
-0.1103397976503783 0.09689209356011921 0.5236976160463871 24 0 0
-0.12689399375064925 0.09834466046041507 0.5091223614990202 94 65 51
-0.14079136803896963 0.09402040308755966 0.5083748197669341 67 31 19
-0.062235054909423854 0.09375136497266985 0.5856924650116663 58 30 26
-0.06736196034527828 0.09406607239601879 0.5784564466259486 50 27 19
-0.14011065350661892 0.09250830200699671 0.5112290293530363 129 102 83
-0.1279187220361057 0.05638293877598214 0.5863025696017677 130 112 110
-0.04974131811353819 0.08674769604882202 0.6202940111038701 166 170 179
-0.10530122667917656 0.09489389547662049 0.5317371704909131 73 46 37
-0.14182309663017814 0.08981154217119465 0.5143928498330139 57 23 14
-0.1485161759555781 0.09828315821556508 0.49831273184859814 43 16 5
-0.12242264030948803 0.0959573626226785 0.5162582228514185 80 47 32
-0.13814554752053104 0.10060976470768139 0.49961005092921285 50 26 16
-0.14277816541761262 0.08753356325400329 0.5175406250463098 113 79 70
-0.060853887381829556 0.09384184005314104 0.5873793734734308 62 41 36
-0.12248731242731656 0.10356767684017482 0.5038251867889563 65 39 26
-0.11071673745754503 0.09926272247634325 0.5191192554112326 86 50 36
-0.11918889752903558 0.09913216244836087 0.5127820920902832 76 43 34
-0.13767582413011348 0.08819079711353255 0.5193034393645036 116 84 71
-0.1447936750453029 0.03625597411186364 0.6207558342650954 172 181 196
-0.13690814547633035 0.0760204647241589 0.5404580381145225 72 47 42
-0.1348943869080397 0.06936141715574798 0.5541607915179487 86 58 55
-0.12855667419054487 0.057954317566334436 0.5824909564449473 90 71 67
-0.09020543111318963 0.09543363040008568 0.5450417206529626 56 33 27
-0.24728210872039538 0.17274036038682322 0.4479341134835184 94 85 80
-0.1348943869080397 0.06936141715574798 0.5541607915179487 86 58 55
-0.11598539170003513 0.09734144124638432 0.5184388653456267 80 42 31
-0.1340421112737206 0.064424124359893 0.5640767138620654 134 125 128
-0.13736343054640307 0.09948978190904718 0.5017174408699913 60 33 24
-0.12280186454738522 0.10210542137139454 0.5058338407751729 45 18 9
-0.11603823309958879 0.10157964896014146 0.5111248328268377 78 46 33
-0.12611907752183654 0.10005696705143084 0.5070384079860819 56 28 17
-0.14382961149595455 0.09466967405787315 0.5057609578474427 88 65 51
-0.05271029047000047 0.08588668903058777 0.6179611975863961 177 184 192
-0.1307672712092826 0.1014888819404572 0.5019792113067256 57 33 23
-0.10817118348280867 0.09925017213743854 0.5213386654331991 105 76 68
-0.08957082970864448 0.09325110029266644 0.5501478367217463 44 25 21
-0.1321165952347173 0.07231992858019852 0.5508702627541247 38 19 21
-0.09994172603036683 -0.07309788523289157 0.8968487268314741 138 125 106
-0.09816069037214151 0.09631219926613786 0.5355611906461628 63 38 33
-0.14022383394400595 0.08920544917778962 0.5162841466975747 169 150 152
-0.20120895971552608 0.11983185903176996 0.47595282490993246 64 45 38
-0.053413084087638785 0.08668271229836354 0.614024411937524 77 56 53
-0.12728422981132337 0.052530016325166545 0.5954395909108996 108 89 83
-0.049368620977648575 0.045941444528974036 0.7280444370382829 70 68 69
-0.05425223656673693 0.08691952521651303 0.6116719453011565 44 25 19
-0.13062346638994507 0.10233469442840401 0.5008131975461836 49 25 15
-0.04824252604780946 0.08646541796918368 0.6241013703415357 134 128 140
-0.1570666204627698 -0.10592839338130236 0.8519894453097449 91 70 49
-0.15154326545087224 0.09345269234902 0.502278949135087 93 64 50
-0.13813677185338544 0.07645538458080214 0.5387890345166954 42 17 13
-0.13391202024163126 0.07705745622758663 0.5410369276038448 44 15 9
-0.13078902238364745 0.0695423967484944 0.557403828298194 69 41 38
-0.14028527979912003 0.08681154140477258 0.5200477120445578 116 88 84
-0.11976706174066087 0.09796778249873168 0.5147178070926158 72 36 22
-0.14150010750464426 0.10019115871640408 0.4987966636830873 46 21 14
-0.1367021965813465 0.09102743760452738 0.5153824733042571 89 55 46
-0.14760661587220333 0.09562379429324962 0.5024843199899535 80 52 40
-0.0934761849877924 0.09426421226891009 0.5441755639622755 87 60 53
-0.127896713524053 0.05136990380734409 0.596845303831058 121 101 94
-0.048133156592417334 0.08632812793731015 0.6251413612604729 104 98 112
-0.14194643937838144 0.09469065071793994 0.5067272273738731 84 57 40
-0.07880561076768225 0.08935757312490805 0.5696671479662707 57 37 36
-0.12279928202623676 0.10386645925886688 0.5031656609983839 53 27 14
-0.14656294188233474 0.09553889867386162 0.5030739874156337 63 35 23
-0.1367812932774932 0.09188210389397326 0.5141446398991948 81 49 36
-0.06627841430776818 0.0935554004531449 0.5811271487470784 84 64 55
-0.1363392052287254 0.0916464392441846 0.5146636086688832 74 42 31
-0.15835824323812958 0.09323194946973141 0.49928382681962946 108 76 63
-0.13971825349130407 0.08121724995797462 0.5296264948352615 71 52 46
-0.1333630076352284 0.09918322866482056 0.5039390458182957 50 22 11
-0.1418881457279212 0.08937212370364297 0.515072770938473 57 25 14
-0.13556742400703378 0.10004902178166815 0.501332655194575 52 25 18
-0.08134641713658693 -0.08711967000958669 0.8358961075268276 75 61 48
-0.131437114311469 0.062215438640691526 0.5709180608931036 125 113 113
-0.12731114168958566 0.09816302073414916 0.5093292285487104 85 53 40
-0.1503964903664323 0.11915224697530709 0.7159176681908436 119 104 81
-0.13390151740139694 0.0709417513171007 0.5519821177941976 28 9 11
-0.14175696746348726 -0.10082519840136586 0.881000946364744 162 150 134
-0.14074977184371892 0.08664997675247377 0.5200864499696686 124 101 95
-0.13448216706502786 0.07327738279624917 0.5472710132026991 29 11 11
-0.0944051182668709 0.0944260471318975 0.5428732940883069 65 38 29
-0.14055469899268908 0.09938340498855786 0.5004085796072597 46 23 15
-0.12993065418223665 0.061347574078860045 0.5741224859498449 118 108 109
-0.12016092317000616 0.09928973359610274 0.5121328032268445 74 40 28
-0.1372989065575045 0.08538528848904407 0.5243116563895677 139 137 142
-0.3600311485136497 0.019130766340106378 0.7084916126490586 246 255 251
-0.15977354840327024 0.1616467736902134 0.4257118284914932 74 47 40
-0.1300527332594591 0.10016517311895055 0.5043244988236302 57 29 18
-0.08547822549531227 0.09384336489603452 0.5530053165476451 29 14 7
-0.11296090773845034 0.09999660052437145 0.5160396115999231 102 73 57
-0.13174741379167104 0.06095245597561637 0.573080285283553 109 88 85
-0.1328825204328645 0.07572732162583858 0.5441372430765762 59 34 30
-0.14005889807860836 0.09749683515747087 0.503424003745182 62 33 25
-0.05585271681861528 0.08688777372100707 0.6090059946679287 32 16 17
-0.1252329134729259 0.10296841672747697 0.5031108264114863 73 45 34
-0.1318378170307973 0.0978098516741426 0.5068948773321338 67 37 26
-0.13746584002563347 0.09170587530911946 0.5139857963234084 94 60 48
-0.05659749314553762 0.08735171856378367 0.6061372861533331 65 45 44
-0.11653386207022719 0.1020083861854491 0.5102233539504248 77 45 34
-0.1327397952855817 0.062331312143773056 0.5693692576760739 142 126 129
-0.13653031020286335 0.08525311972899578 0.5250154959664793 46 22 18
-0.12640781831987824 0.12434822180367319 0.5238428600641079 115 81 71
-0.15071911116852765 0.0914179541200097 0.5059768418310978 71 33 22
-0.06149039993977862 0.0933219112047929 0.5879342463472007 57 36 31
-0.15350254730030646 0.09426290040344862 0.5000708522797229 86 56 46
-0.17718557738106067 -0.10908470390361824 0.8104439110520032 170 180 190
-0.13407122917788086 0.06635770943280488 0.5604373157500778 140 125 128
-0.13093910445809895 0.05782744900472079 0.5801227435198754 103 78 73
-0.13379570355079157 0.08916391719640956 0.5203054051244103 112 75 66
-0.1317420161692347 0.06786842510385327 0.5597220374865182 107 82 77
-0.12988646119690014 0.0973277304744162 0.5086956418215967 84 52 39
-0.18351731263661988 0.14536907720261621 0.44105455508730607 40 19 14
-0.10631038706383714 0.09572299229464291 0.5291663173551832 98 67 49
-0.12802125236594938 0.09893595651676063 0.5074853066728928 70 42 30
-0.1344125128314628 0.07609573855464734 0.5421859040368744 49 21 17
-0.1325032046032076 0.06938869951962442 0.5560997640097803 53 27 26
-0.09821758766647903 0.0939331522609661 0.5401039741065833 77 48 40
-0.14290107595330945 0.09045034194163323 0.5128123227927027 66 34 23
-0.15252815961085922 0.09340766630151891 0.501784521243119 77 45 34
-0.05927818320052946 0.09161353022966033 0.5955306055109776 47 28 22
-0.1403368525488281 0.09192846747546138 0.511682107854434 96 67 51
-0.12758371494319984 0.04965154207038527 0.6012144828905082 146 128 126
-0.048133156592417334 0.08632812793731015 0.6251413612604729 104 98 112
-0.056782969537673034 0.08699154509103228 0.6081614814518574 28 12 13
-0.1309439078382413 0.0989071425296425 0.5057848880964613 46 18 6
-0.12772550785855435 0.05211593813562591 0.5955140919452231 128 108 99
-0.13292999170871572 0.06501368972455021 0.564053833702675 136 127 132
-0.13134849279923214 0.10245564083632941 0.5001721716282359 55 28 19
-0.05201941212970885 -0.04095666387198813 0.567870929913333 108 89 91
-0.1432705979654734 0.09889107725311844 0.49981178623488953 42 22 15
-0.1336485930763339 0.07932765131517057 0.5373186627740245 41 12 4
-0.1354355646021497 0.08566904294965794 0.5250151065058107 77 61 62
-0.11336923778360156 0.09743672423972022 0.5202584937586252 84 46 33
-0.16314105557473982 0.09279348914348542 0.4981180846808244 61 33 19
-0.06723953305044357 0.012082748377729055 0.780104868609214 214 228 237
-0.12817455511533213 -1.174394484570017 1.1536218593537269 133 127 131
-0.1263189075665245 0.10350834611772597 0.5014989668095646 64 36 25
-0.1364285525163431 0.07654833491234003 0.5398755562393895 31 3 0
-0.1227089437723084 0.09886963119153457 0.5111040417271338 79 45 35
-0.13248238797553882 0.07432186355164211 0.5470528009554873 36 18 14
-0.06035558654675302 0.09287763379908505 0.590845846405404 43 28 25
-0.12891692472348465 0.09871580292703952 0.5072989330106292 63 35 23
-0.1325701963669119 0.06857180495882352 0.5576569543233804 72 41 39
-0.1300166928690019 0.09820481078626056 0.5074265673405954 95 66 52
-0.24794899678575494 0.313522618955041 0.4067763905065287 156 138 124
-0.1295717661287924 0.09648827608986232 0.510324921803492 53 13 1
-0.09726275745008961 0.06592637478788847 0.704796772793909 78 61 43
-0.10119758284348931 0.09404934938298966 0.5370698293633581 72 45 36
-0.12731463612374083 0.053522683987836835 0.5927146626875762 141 122 118
-0.10860231898603741 0.098671610139037 0.521964781887798 105 77 66
-0.11800441337851363 0.09692542098470698 0.5172023152746942 91 63 51
-0.09056523629979826 0.09474140973150519 0.5460401422004437 47 22 15
-0.09662245931842017 0.09660904437840764 0.5363566568917562 56 31 24
-0.1280899050803354 0.09964768628508983 0.5063403386698008 51 24 13
-0.14029746108192298 0.10070317956314649 0.49862466117524673 47 25 14
-0.13034201031647344 0.06476644480996728 0.5667938095771259 137 132 138
-0.0650162177436625 0.09311767833023396 0.5835968030653921 57 32 28
-0.08615489505687376 0.09346783681260895 0.5532846328523608 43 28 23
-0.11586977767835255 0.09660534323825933 0.5194220667333875 85 45 35
-0.13052298241512209 0.06623647806955672 0.5640127771449865 131 121 129
-0.12607452147610812 0.09807034326855801 0.5101478666050213 70 38 25
-0.10846069905676323 0.09536442138985152 0.5279962963048342 132 121 138
-0.049350283017548395 0.012257818543565318 0.5870010533509712 134 127 134
-0.13668693614424532 0.08404995592861425 0.5265485373397767 35 14 11
-0.13527038672335448 0.09020726751995585 0.51759509930722 107 75 64
-0.09576874277467558 0.09479583547094322 0.5408933740767433 65 38 29
-0.14553353045424083 0.09316751913617045 0.5073698077456671 75 39 27
-0.1830695835346978 0.1480928870844833 0.43886096912173533 38 16 5
-0.12785251208852164 0.049064485402914124 0.6019758452321696 124 108 108
-0.1367812932774932 0.09188210389397326 0.5141446398991948 81 49 36
-0.1517737952258979 0.09665576112576733 0.4981846082264731 54 30 18
-0.10491108934942445 0.09554734396762832 0.5307746266892931 88 61 50
-0.14089275012651986 0.1003723144182234 0.4987264644368903 55 33 22
-0.13993098949522229 0.08556293249150557 0.5222695870483046 147 138 141
-0.1271547116981306 0.05027615519357979 0.6003774983470797 122 101 98
-0.13975725712024967 0.09458556983932344 0.5081097209233089 58 15 6
-0.13078317788535393 0.102908872349243 0.49986400941029224 72 51 58
-0.034438852399485013 0.048749765328613436 0.5957182835534189 140 138 149
-0.1377209713897496 0.09653276599002003 0.5061510370489894 67 33 21
-0.12110616022002649 0.10226603396282363 0.5065968853649115 50 20 12
-0.1331574730711024 0.09645072506122605 0.5083455102989745 71 31 19
-0.13391302708896002 0.07781134606487551 0.5396468271470614 111 84 73
-0.14010727114764143 0.0895476087198224 0.5156256130515913 68 28 18
-0.14391077040975792 0.08989063128765827 0.5130710114549047 105 73 60
-0.14087758833248282 0.08333285138760545 0.525330053775558 31 10 7
-0.13389128636192685 0.07297120924412566 0.5483720237145582 51 33 33
-0.12834917022061829 0.05418322431111683 0.5906023243871589 119 95 91
-0.11854981694142562 0.053240393442864395 0.7154218544150905 112 102 93
-0.12415655198575236 0.1041522915960629 0.5019033409564554 65 37 25
-0.10525817992119278 0.09757356950565607 0.526653206748856 146 135 151
-0.10101629366795675 0.09550910262246842 0.534551259646638 64 40 30
-0.15162065951517883 0.09607798520311 0.49893419763043684 73 46 37
-0.057190797240715484 0.08738843884822824 0.6051361729857908 42 22 21
-0.1387109640518701 0.09503050064390951 0.5078857926618672 69 25 16
-0.11493200104962026 0.10072079790679712 0.513340859802297 75 39 27
-0.12968354963729914 0.0533312441254506 0.5905252453938233 131 112 105
-0.11643692411835972 0.09645621542080487 0.5193766750764188 92 56 44
-0.13843826472321352 0.08825977192168906 0.518894385338189 129 107 86
-0.14840736284079994 0.053544709926511336 0.535215985065029 30 10 12
-0.11932998820380859 0.09844987507170828 0.5140085684119341 82 48 36
-0.1334865137706867 0.08540531424277407 0.5268092578652723 56 29 20
-0.15094473995373203 0.09219236168395654 0.5046375891687044 83 49 39
-0.10059507752128738 0.09531472607033376 0.5352585839105014 64 35 27
-0.12731808264311525 0.05088387389997577 0.5986197802463737 121 102 98
-0.13543614773111165 0.0833896147058765 0.5289890654083772 44 21 15
-0.14439048822658232 0.09350362613356182 0.5073610989503626 75 46 32
-0.12842438024601338 0.053189398760061526 0.59275145207986 123 106 98
-0.12774550065241172 0.055090932847934405 0.5893594577508213 113 94 88
-0.13651203413956667 0.08853103752950209 0.5195033248132609 121 93 82
-0.019574251242558342 -0.1069456537307139 0.9222486685741779 96 79 61
-0.13131407342646767 0.06852784331853586 0.5589167308849625 116 88 74
-0.13248715207511533 0.08872961054240575 0.5219611572793565 110 77 72
-0.1371425837240712 0.08807278221451909 0.5200198262416514 105 72 63
-0.13278115317925013 0.07159693933014899 0.5517567534188236 31 11 13
-0.14825827612832565 0.08593746576420498 0.5155278628673879 112 83 79
-0.13578040377227601 0.08957874043803236 0.5181953973614585 85 50 44
-0.11722915552940495 0.0886678689293358 0.463979662510162 65 46 40
-0.13567979112404735 0.09838273641372984 0.5037640649073772 54 29 22
-0.08493877613518906 0.0916813887249656 0.5577036939174159 27 12 9
-0.1371258014489292 0.10014337715137529 0.5005516285721509 44 19 12
-0.12839453745567692 0.06093872492238092 0.5764568355095634 87 77 78
-0.13138774813787898 0.05927589294485931 0.5768508901643158 100 85 78
-0.149515786419848 0.09222644915655392 0.5053111443869022 117 83 71
-0.12984170505814838 0.1010891028171163 0.5030305949635416 58 31 20
-0.1328537746364322 0.08732217598187943 0.5239208466128015 172 170 184
-0.13028430101096122 0.05626262087595449 0.583863258964978 146 125 120
-0.13996157514382263 0.10699650143733141 0.492178080563459 77 44 39
-0.12959782120713217 0.06026788115115447 0.5767011897191502 97 77 76
-0.09718297933057979 0.11469545984266673 0.512005245893434 44 17 10
-0.12976704060390762 0.052614994886704305 0.5919611599705401 166 147 140
-0.11086640029694632 0.05228495802211201 0.5719206745438641 113 89 89
-0.08249574635375734 0.13093379356053653 0.5742906408708007 58 29 23
-0.07743749518407218 0.10967167291924143 0.5246312952462132 76 48 36
-0.14618660924300383 0.09687154286506384 0.5014786905708322 68 44 34
-0.12907929086391157 0.056098754761726266 0.5855396406178698 106 82 80
-0.15454426511341704 0.09521160733705299 0.4983964943569179 83 55 44
-0.14272934694157682 0.08922906729470502 0.5144320102494612 75 41 32
-0.15384718377353168 0.0940704699184113 0.5001980985533023 79 51 40
-0.156703238219747 0.09364291785988513 0.49933899388462966 102 70 59
-0.14377448501763265 0.17150387686589882 0.43817375441090134 91 72 68
-0.11349576333545719 0.10090169916769931 0.514144539897827 74 38 26
-0.06539461926369414 0.04577215310585082 0.6111713621524058 133 133 141
-0.13412125195508223 0.0668591197195943 0.5593818478571383 171 151 152
-0.23954530191284118 0.23050930917875906 0.41365606998651444 150 137 128
-0.13535907696319727 0.0825468416401043 0.530256235249747 54 29 24
-0.13775371886476787 0.09459034896478277 0.5090551246090953 77 33 24
-0.1298833947481809 0.06827553308894954 0.5607298807437912 138 115 109
0.3511791950020203 -1.6733800903192606 1.5073417560459614 92 93 98
-0.2621032911964754 0.13111717474892046 0.5284273233106178 142 127 108
-0.06417907052133774 0.09440577654880283 0.5814563081826506 30 9 6
-0.1231368175079305 0.11279578430853378 0.44801703180705565 155 138 130
-0.13362944278402125 0.08198024397919028 0.5327552815455806 48 29 22
-0.13178767983732384 0.0783409514628551 0.5403758087069324 89 64 59
-0.13840427190422044 0.0775291591525682 0.5366863634871393 52 24 21
-0.13607599892826072 0.1004010671806243 0.5005463821821559 52 27 20
-0.04298608641407299 -0.07325289496468569 0.5721962462870847 97 78 74
-0.06490349012785741 0.09360504518471861 0.58293469012854 40 15 10
-0.12099946985387801 0.10509832015501422 0.5023985816220263 64 37 26
-0.14844720205175427 0.09945701827658558 0.49671992101369167 54 30 18
-0.14032007211882458 0.09101791916153842 0.5133432645321756 66 30 18
-0.12984170505814838 0.1010891028171163 0.5030305949635416 58 31 20
-0.08609355903955104 0.09307835928978873 0.5539396618234981 28 13 8
-0.14215033726247628 0.07833043294893453 0.5313866256338596 47 23 19
-0.12872349522094692 0.05720795849230101 0.5838406202754932 137 116 111
-0.12830651097561285 -0.06990072792454315 0.7889069058199384 127 131 140
-0.0827852592644856 0.09022675949405252 0.5630235538692124 75 52 46
-0.10222054181105286 -0.0571829056918582 0.5448690039736978 31 13 13
-0.11975050067973707 0.10272182126459452 0.5070344630574777 49 19 8
-0.12146765989926821 0.13407183882681728 0.5086272045355998 64 39 32
-0.11257833661087892 0.15391115697022556 0.4751623382833064 39 18 17
-0.125088662774898 0.09139578696023656 0.7574070698095925 146 139 121
-0.144546155806799 0.09511040649010133 0.5048572867303054 63 37 24
-0.14333631164246932 0.1273254350888662 0.4949150947316382 73 49 39
-0.09657450144769214 0.09384272842716203 0.5419174605242252 75 46 40
-0.09324857783859908 0.09648375079266593 0.5399469302384329 67 45 34
-0.07165531747354192 0.047461676939332065 0.5103355336273544 97 69 58
-0.13812955205816932 0.08867975166063383 0.5183524100068883 87 45 33
-0.07252660156660812 0.07961178064333047 0.5983634272367355 36 16 15
-0.09836721492171704 0.09482971063590653 0.5382482880496879 76 49 42
-0.1389281444190845 0.09186497681361624 0.5128687682882644 81 48 33
-0.053451946355803345 -0.1341843624537597 0.9156676058710679 67 53 40
-0.05748337551042826 0.14276459156218568 0.5143729381934047 58 35 27
-0.12880178860409086 0.051355224049216205 0.5958354142651345 117 97 88
-0.24789347561912792 0.30948914181894616 0.4071093441060869 148 132 117
-0.13620548672438806 0.0745546541056789 0.5438690240637267 35 16 12
-0.06584850611618459 0.09406271517959795 0.5802710847231325 58 38 29
-0.17390465526246343 0.19757336491153313 0.43241903432445267 136 112 102
-0.13012099293010806 0.062247422662418055 0.5721898810657882 148 143 147
-0.14917133001539726 0.09228812943510448 0.5053744050622571 99 66 51
-0.18891970743528053 0.10924103450685337 0.47137849037301677 43 18 11
-0.14272934694157682 0.08922906729470502 0.5144320102494612 75 41 32
-0.13375803568540978 0.10699046137585519 0.4615850026605323 98 80 70
-0.08735462873618073 0.09237178796962921 0.5544388829592077 44 26 24
-0.12869296956085807 0.05342672672432913 0.5917892804014374 119 99 90
-0.13531781384972552 0.07237846026341548 0.548176861531868 31 12 14
-0.10970726242242863 0.10905404691897026 0.5440709494478354 63 39 29
-0.13411091953207502 0.07163836730233986 0.5507882573264942 47 29 29
-0.10278178237313254 0.052794238408102774 0.4985965677011468 46 19 10
-0.15673941009087303 0.13555099732364412 0.4638858334898246 62 32 22
-0.13537742321328838 0.13312747550214152 0.5052833579707234 56 29 20
-0.16394144473314337 0.19682205302359446 0.4390742189292489 109 89 82
-0.14257503527346943 0.09277487680795762 0.509410678415619 75 46 32
