ply
format ascii 1.0
element vertex 194
property float x
property float y
property float z
property uchar red
property uchar green
property uchar blue
end_header
-1.6803910077271482 1.3269532575658396 3.326886545204284 90 86 77
0.10004446732710348 -0.1750403186066013 -0.5674523516293822 126 112 101
0.9598819906275137 -1.0868919861546518 -2.930889285733718 138 123 102
-0.16823123459637443 -0.049555129143231395 -0.5701447397119325 112 105 97
-0.08919454216461646 -0.19709061035547368 -0.44175045124120405 90 95 88
0.047754083028122916 0.21841042140709935 -0.5564836739761977 209 207 195
-0.15910973017464622 -0.0481209275167726 -0.5835387699492987 115 108 100
0.11181379660323033 -0.06395257991924336 -1.1414720343787859 115 138 156
-3.8788359676046507 6.775882335709535 11.844334700515434 230 235 229
-3.8788359676046507 6.775882335709535 11.844334700515434 230 235 229
-2.0370534340342603 -1.389841647547255 3.8915007425452837 57 58 52
-0.05681721269536539 -0.17452552883626343 -0.5552371145493078 142 150 152
-1.1400016543667526 -0.7365466050941241 1.7726123998924717 35 45 34
-0.8270198244408358 1.145775330298503 1.8196490468477922 177 166 148
0.46469442502351777 0.7585511284115272 -3.272906242638133 133 118 111
-0.08114083470470217 0.04168676768076717 -0.48785028438352235 121 105 90
-0.3868869637107907 0.12237757836239732 1.2773203462211837 63 71 58
0.026935660649404423 0.029530326895799278 -0.6181698346609907 76 45 24
0.09459349810455736 0.8992694025043052 2.293844931429009 149 172 188
1.4970891665100932 1.5488986174697952 5.551015005408282 136 162 179
-0.10626547129820269 0.3076294253865339 1.244308423160584 65 86 81
-0.1193577247241669 -0.4056422570000917 1.997581473364384 165 145 138
-0.11970318438040227 -0.2402159480717492 -0.34859512983572893 64 76 76
0.019461077538266643 0.29167651546780277 0.4876241237637996 67 75 77
0.43300305610884565 0.2534680784225749 -1.76461776834326 88 106 110
0.11728680650581276 -0.022528804486082698 -0.4647320786905623 112 84 60
1.1536941759146566 1.9256254126804389 -9.198598345751545 66 74 76
-1.1638952420705333 0.3073014349615655 3.666111365227236 70 82 70
-0.24183330965477925 0.8392907644273976 1.766675606334078 55 72 79
-0.031158399677990965 -0.154321308952026 -0.31064309457280237 21 27 23
-0.07474477617965868 -0.3210044875971735 -4.363733950448472 99 86 67
0.05916101275362445 -0.09237324199161992 -1.2867231408233857 180 172 149
-0.0019858947741049587 0.08377470926740797 -0.44555192224002405 52 27 7
-0.03412302867148172 0.5502654959990299 0.9143160100790139 20 45 41
-0.009455166561798041 0.05680237398811164 0.14571839554806185 65 90 87
-0.057357241086389364 0.44726504390757643 0.87323616399523 39 49 41
-0.02558101696861999 0.5736252618814421 0.9825630828746454 29 49 47
0.5215903906345256 0.800523620415556 -3.726898497908041 76 100 100
-0.0939043598367141 -0.048049453732385436 0.516838205791802 78 92 92
0.1910054561711391 -0.5318193151889029 -3.033512321098562 49 58 53
0.03435267372243286 -0.14863151428102941 -0.33980286516853353 14 24 34
0.006210641650045798 0.29259817910594693 0.47246537986328674 102 113 115
0.1375502830868987 0.09372353857360345 -0.6181942294595336 61 66 72
0.06036039338908362 -0.10738860970282764 -1.3909187886349523 101 124 138
-0.12269235304850047 0.9595307983481058 2.165127286305511 37 57 56
-0.029524734129711905 -0.12742525542451805 -1.3975656573255792 172 163 146
-0.034946611985611484 0.2375165767062723 0.45075406247725636 65 73 75
0.06725949929099928 -0.13485307101802252 -0.6325861982869689 39 48 47
-0.12166065478217673 -0.098977766830062 -0.4298221077928988 56 67 61
0.006237040542822497 0.7987008765678836 1.7846014022280448 137 156 170
0.027280171584496776 -0.23809412637794417 -0.3947970748632758 99 110 112
-0.9128829658760419 0.23010910703544998 1.4021170885762873 138 121 103
0.00048213086176870066 0.3125783555094628 0.7020308154917039 50 58 61
0.05255104832349117 0.15983283456474365 0.25245350221386065 56 51 47
-0.07873177575780081 -0.10639087978040396 -0.7755983112531678 123 113 101
0.27486091730763085 -0.31389793536898797 -0.856099129657943 135 123 111
0.2019618790057121 0.05273026069517631 -0.7325791188675883 125 137 137
0.15471852455362234 -0.07814460869212699 -0.3980480053297407 13 26 34
-0.06935658868986097 0.06507741970491905 -0.8021894952768411 81 86 89
0.143507049827288 -0.22671501579290992 -0.6025246490821061 48 31 21
0.3008286718287214 0.04785399327702449 -0.7169397977998639 211 162 130
0.08799538428663387 4.392544284440377 7.32806855799988 140 154 163
-0.15101971769479272 1.1226858438079874 1.4812858934892084 51 46 42
0.33226016917583573 -1.08610142994872 -1.8235592914941474 126 130 131
0.046047002145646804 -0.09340284039932648 -1.0294094743986366 86 100 100
0.0895726414935205 -0.3329570378583956 -1.5041301106056513 94 97 104
-0.0168630853285315 0.14757101739720863 -0.7027539983195069 124 143 139
-0.004921774829491058 0.10982116104558737 -0.5560363858572721 122 141 139
0.20696124949256242 -0.5718623978183404 -1.5987884381825817 48 52 55
0.20102032574344986 0.17082670294105268 -0.4091022740718348 90 99 98
-0.6734068207587516 5.367631316372447 7.270823539658785 110 75 56
0.08284903621789715 0.1277576940557294 -0.9048255510214367 197 182 161
0.3360989622141986 -2.4104165825824935 -4.619375776353058 52 57 50
0.3415794980412038 -3.228070717486427 -6.111265825164063 62 65 56
0.0783379815238883 -0.21513139069793863 -1.2412790852604187 50 65 60
0.0028690256743524284 0.037391288125377536 -0.7391994834839009 21 33 31
-0.00801175127287191 0.05473416748351166 -0.7209097025895524 29 45 44
0.05921833398657857 0.0038465726484703234 -0.8546940308321985 96 120 130
0.22455440629114834 -0.6550994971891066 -1.4988564539695222 194 181 162
-0.07827871356752135 0.022715550490834274 -0.8343991087948271 142 125 107
0.02347513239294156 0.11544243281695567 -0.59945819642071 56 57 59
7.954661049153516 -121.67623173258335 -255.4978233373832 43 32 28
0.25215301731616707 -1.1925636302351643 -2.0448251188191975 91 91 91
0.45990161973023574 -1.6450054722102516 -3.379405073783226 133 145 145
1.0079656002402615 -4.8724309510495765 -10.54944959173443 79 80 74
0.1429484693744706 -0.34367124223001466 -1.3826202526634808 81 79 66
0.06189356247586244 -0.06603979955178241 -1.01235588803103 40 51 43
0.13627454936455916 -0.06278743037451649 -1.0332605441766776 209 193 170
0.03663557047768613 0.003531024698924116 -0.8908164017180522 66 73 66
0.10009483774682357 -0.2194804844180346 -0.755319214486106 118 129 133
0.19819475623577737 -1.0198953893012777 -2.476593570183102 60 71 63
0.02652961713177682 0.013723823912404877 -0.8558032749097266 9 12 1
0.21053350808534557 -0.5840257052481782 -1.4779273225214142 104 95 80
0.051619268168160655 0.030524860523746082 -0.8639444112011984 78 90 80
0.04062551842110687 0.13407705314543075 -0.5703278327024812 59 66 58
-1.2688649347275793 5.235433563958536 8.722447059830383 119 128 125
-0.029005241438221127 0.07381716761883272 -0.5619802458877464 103 118 113
0.2218698548493221 -0.6370776524928436 -1.5837740619125802 111 123 137
0.17164332860615142 -0.10915922914601514 -1.0353508379411165 112 78 53
0.22540709322563693 -1.4649863045112184 -2.7176056269857405 70 23 7
0.20851960662501803 -1.1036743182385116 -1.9972797913366314 116 85 57
0.3427377931518927 -2.8148013716479148 -6.18664474471977 46 61 58
-0.015147515097202252 -0.6628024415049129 -1.6727646911738507 23 29 27
-0.08550613611259965 0.8455826260548459 1.3516712611809527 134 145 149
0.2204132141339746 -0.5445509149579373 -1.370880020114343 173 110 66
-0.013809828154584062 0.15929161946678133 -0.7263791361199619 119 124 128
-0.05882721614300681 -0.9961121046813104 -3.5690861554813074 52 66 66
0.11283243855831174 -0.0576433109446388 -1.0973459663957448 168 167 163
0.09541106762250394 -0.06213825608994846 -0.8664449107925362 25 34 39
0.09677562999480785 -0.013289631085305816 -0.9770523968562131 123 102 83
0.10912303438162793 -0.10922207827700478 -1.1305704111231354 86 73 67
0.09924361026230044 -0.06031742548803696 -0.8924291447927569 98 115 125
0.12222719815095237 0.032941077053604356 -0.753567847601574 55 60 63
0.11578004184133701 -0.00939716788189328 -0.9362731573162991 53 44 37
0.11472807902607816 -0.010919300595228694 -0.9382765930343215 14 4 0
0.12222719815095237 0.032941077053604356 -0.753567847601574 36 40 41
0.11566904019141766 -0.008725806793055258 -0.9377727693704563 50 40 30
0.11412311699216508 -0.009598638656197356 -0.933742521756748 47 40 30
0.10368313170894317 -0.07678963681792933 -1.1104897513843208 91 96 92
0.0961742783270049 -0.05678386461765017 -1.027921765998509 196 201 197
0.13121823255212267 -0.023961051502350502 -0.9554940126326209 128 109 95
0.0960346518134436 -0.062144593600634866 -0.8684993646944834 99 118 125
0.1203784579957178 -0.09919631394133487 -1.1095028793858477 123 124 126
0.0882253682438726 -0.036447829453338895 -0.9839150226221832 124 133 130
0.10173455771909967 -0.10794354278418992 -1.1380526412886394 90 104 115
0.12410900820077214 0.029636174207529363 -0.9004162602125989 142 113 97
0.1080627553678991 -0.010140671768653792 -0.843774062847136 57 57 59
0.11226033026301618 -0.0889405401701316 -1.1287808326474653 87 104 98
0.10744178897605942 -0.00791582403047327 -0.8300944757251717 37 43 43
0.09249132806954569 -0.036203233170995226 -0.969928805595026 75 85 84
0.08994613458669613 -0.056726383123267915 -0.8412369649964595 63 60 51
0.13464480471366644 0.002252599171246237 -0.7932521477000929 89 103 112
0.13399240708799737 0.03827999788488994 -0.7447326717107439 59 61 60
0.11324956342446993 -0.07366473138032324 -1.0814990136392295 82 91 100
0.04722795671431395 -0.1923988830100879 -1.3435729673531531 129 150 167
0.07702877178621251 -0.009495251330976413 -0.9211394592868802 81 59 38
0.12365228845273366 -0.07202444092235222 -1.1043486397626245 62 53 46
0.1320456082865636 -0.029334639231124116 -0.9576756354570436 107 90 74
0.07836426259221724 -0.01914653223138149 -0.863761482172555 54 72 82
0.08317148789613847 -0.00849518722582595 -0.8532636355862946 11 5 9
0.10185984687662761 -0.04974934806859304 -1.014614445434889 109 129 127
0.1102458945435089 -0.07176880613458843 -1.0692585516479922 133 145 157
0.10127625078100387 -0.10795990892552242 -1.1356382565378986 52 65 73
0.09555058354033244 -0.04514127052959634 -1.0019716057084807 57 72 69
0.09082910866431582 -0.03888854057573832 -0.976462860012323 110 119 116
0.0698086185493979 -0.11116712261837425 -1.1816185553079022 102 122 121
0.08059404735638787 -0.021718493544973544 -0.9384824448632102 57 68 62
0.08811963787385 -0.005327159279782241 -0.937588020862178 90 64 49
0.08434336169168326 -0.03149158811757137 -0.9709666977737765 26 36 28
0.09609296422024555 0.005281348611285982 -0.8793405369932566 71 78 71
0.08499005772438795 -0.0045816222700403395 -0.9216838185290117 39 11 0
0.10177614050624607 -0.05263874455289061 -1.0288205408253788 103 119 119
0.09049446655243219 -0.11238357696059353 -1.1660772030992763 7 10 3
0.10188895204795607 -0.0757629997578401 -1.0999699472629054 67 55 43
0.09473370468712541 -0.007699922745399921 -0.9423996899248682 172 122 87
0.14082669353060168 0.027874718432118705 -0.7532132896037673 64 64 64
0.09380860679483262 -0.0002964368873007571 -0.9191390925857279 37 4 0
0.09876419260214904 -0.07403030866241331 -1.1137403906341476 186 178 165
0.08872212161200403 -0.03164182837905291 -0.9736008974866499 19 25 11
0.07363127917956769 -0.022612955194447303 -0.889875638060844 25 41 41
0.0988637516458047 -0.0060572934020102775 -0.9402098769692468 54 20 0
0.0892923495003566 -0.03778253512667915 -0.9893562437105393 88 93 96
0.10443596008122348 -0.0572444905098987 -1.0461339215671286 80 90 92
0.11474359150908853 -0.08257010734999175 -1.097665485073791 23 35 35
0.11698478262770194 -0.0822087939087286 -1.1225479979858841 135 149 160
0.13087675640644478 0.0004955882325617622 -0.884326665221306 171 154 144
0.16127295559798874 0.06984843617371224 -0.5688437569660584 79 84 78
0.11414183550075442 -0.08808643165144768 -1.1067151788756697 19 25 25
0.10742033578648202 -0.08017573478565 -1.1066072580610757 63 70 63
0.1106070326470515 -0.0716791512231931 -1.0737737323560452 25 38 29
0.10926761249248504 -0.07842577163766318 -1.126411923289831 62 74 72
0.09486781410480569 -0.025889490803043706 -0.926148897441363 95 110 105
0.14337488615868763 0.019813861877705174 -0.7322061471224192 21 27 27
0.11213802983806093 -0.0630696358748809 -1.0714251877773167 173 189 202
0.10584911790176699 -0.06063665015359063 -1.04933981332799 19 0 0
0.11171677376118602 -0.020585230443537893 -0.8722255278707267 105 109 108
0.11112899725399639 0.02453421986442647 -0.806316012558712 113 109 106
0.08754556433904069 -0.02910795470318653 -0.9717811775891194 97 100 93
0.0718372497959875 -0.022374589709288226 -0.8805751242298641 20 39 35
0.09049964294314318 -0.0019896824377624925 -0.9109411788433103 156 107 74
0.08016837916417714 -0.033538714890990834 -0.863169181029553 42 63 56
0.0866539524881125 -0.04578151072991656 -0.9886233505452062 72 90 100
0.11233263609066015 -0.0887948079147512 -1.1148802948126464 129 134 130
0.0968315101810433 -0.007383758263110404 -0.9163036407573634 36 52 51
0.09757495622086158 -0.01672326156613013 -0.9458453249969307 109 76 57
0.09736319996800225 -0.004797301582479082 -0.9392849684854179 125 83 59
0.08080750697703841 -0.020760764791286135 -0.9346480028414021 26 39 32
0.11145873645657747 -0.0751326852976144 -1.0838608069988453 75 83 72
0.09561312923260779 -0.10268984355572044 -1.1614305291039888 43 57 58
0.09811665396191153 -0.07305622962002302 -0.7905200382682548 11 15 14
0.07205836583998756 -0.019224304916513994 -0.8772284773601531 5 19 22
0.10495517625299744 -0.06415479416726913 -1.0706708495511426 131 143 143
0.11495942844265969 -0.08528531111662876 -1.1031355344869425 78 87 86
0.08310985504554831 -0.0176872359595346 -0.8954673000183909 52 57 53
